55.3809 29.197 3.65
54.7083 16.3632 3.65
54.7083 16.3632 3.35
55.3809 29.197 3.35
50.3291 16.5606 3.65
50.3291 16.5606 3.35
50.6693 29.3528 3.65
50.6693 29.3528 3.35
54.7998 18.1088 0.001
54.8397 18.1067 0.001
54.8397 18.1067 2.076
54.7998 18.1088 2.076
54.8607 18.5061 0.001
54.8607 18.5061 2.076
54.8207 18.5082 0.001
54.8207 18.5082 2.076
54.8626 19.3071 0.001
54.8626 19.3071 2.076
54.9025 19.305 0.001
54.9025 19.305 2.076
54.9868 21.6766 0.001
55.0267 21.6745 0.001
55.0267 21.6745 2.076
54.9868 21.6766 2.076
55.0476 22.0739 0.001
55.0476 22.0739 2.076
55.0077 22.076 0.001
55.0077 22.076 2.076
55.0496 22.8749 0.001
55.0496 22.8749 2.076
55.0895 22.8728 0.001
55.0895 22.8728 2.076
55.0793 23.4415 0.001
55.1192 23.4394 0.001
55.1192 23.4394 2.076
55.0793 23.4415 2.076
55.1401 23.8388 0.001
55.1401 23.8388 2.076
55.1002 23.8409 0.001
55.1002 23.8409 2.076
55.1421 24.6398 0.001
55.1421 24.6398 2.076
55.182 24.6377 0.001
55.182 24.6377 2.076
53.6707 16.4097 0.001
53.6687 16.3985 0.001
53.6692 16.4097 0.001
53.6978 16.3964 0.001
53.6694 16.3977 0.001
53.7002 16.4314 0.001
53.6987 16.3972 0.001
53.7182 16.4313 0.001
53.7174 16.4306 0.001
53.7223 16.5395 0.001
53.7231 16.5386 0.001
53.7051 16.5402 0.001
53.7061 16.5802 0.001
53.7069 16.5794 0.001
53.6769 16.5808 0.001
53.6777 16.5815 0.001
53.6779 16.5695 0.001
53.6764 16.5696 0.001
53.6702 16.3992 0.001
53.6784 16.58 0.001
53.6972 16.398 0.001
53.7053 16.5788 0.001
53.6988 16.4329 0.001
53.7035 16.5388 0.001
53.7167 16.4321 0.001
53.7215 16.538 0.001
53.6707 16.4097 2.0695
54.6582 16.3651 2.071
54.6582 16.3651 0.001
54.6567 16.3651 0.001
53.6692 16.4097 2.071
54.6567 16.3651 2.0695
53.6702 16.3992 2.0695
53.6972 16.398 2.0425
54.6562 16.3546 2.0695
54.6562 16.3546 0.001
54.6292 16.3559 0.001
54.6292 16.3559 2.0425
53.6988 16.4329 2.0425
53.7167 16.4321 2.0245
54.6308 16.3908 2.0425
54.6308 16.3908 0.001
54.6128 16.3916 0.001
54.6128 16.3916 2.0245
53.7215 16.538 2.0245
53.7035 16.5388 2.0425
54.6356 16.4967 2.0425
54.6176 16.4975 0.001
54.6356 16.4967 0.001
54.6176 16.4975 2.0245
53.7053 16.5788 2.0425
53.6784 16.58 2.0695
54.6644 16.5355 2.0695
54.6374 16.5367 0.001
54.6644 16.5355 0.001
54.6374 16.5367 2.0425
53.6779 16.5695 2.0695
53.6764 16.5696 2.071
54.6654 16.5249 2.071
54.6639 16.525 0.001
54.6654 16.5249 0.001
54.6639 16.525 2.0695
53.6769 16.5808 2.071
53.6777 16.5815 2.0702
53.7061 16.5802 2.0418
54.6651 16.5369 2.0702
54.6651 16.5369 0.001
54.6368 16.5382 0.001
54.6368 16.5382 2.0418
53.7069 16.5794 2.041
53.7051 16.5402 2.041
53.7223 16.5395 2.0238
54.6342 16.4983 2.041
54.6342 16.4983 0.001
54.617 16.4991 0.001
54.617 16.4991 2.0238
53.7231 16.5386 2.023
53.7182 16.4313 2.023
53.7174 16.4306 2.0238
53.7002 16.4314 2.041
54.6292 16.3894 2.041
54.6121 16.3902 0.001
54.6292 16.3894 0.001
54.6121 16.3902 2.0238
53.6987 16.3972 2.041
53.6978 16.3964 2.0418
53.6694 16.3977 2.0702
54.6568 16.3531 2.0702
54.6285 16.3544 0.001
54.6568 16.3531 0.001
54.6285 16.3544 2.0418
53.6687 16.3985 2.071
54.6577 16.3539 2.071
54.6577 16.3539 0.001
54.6659 16.5361 0.001
54.6359 16.5374 0.001
54.6161 16.4983 0.001
54.6113 16.391 0.001
54.6277 16.3552 0.001
54.6659 16.5361 2.071
54.6359 16.5374 2.041
54.6161 16.4983 2.023
54.6113 16.391 2.023
54.6277 16.3552 2.041
53.7051 16.5402 0.011
54.6342 16.4983 0.011
53.7069 16.5802 2.041
53.7069 16.5802 0.011
54.636 16.5382 0.011
54.636 16.5382 2.041
54.5866 16.5455 0.867004
54.5763 16.5459 0.865641
54.5659 16.5464 0.867004
54.5563 16.5468 0.871
54.5563 16.5468 1.081
54.5659 16.5464 1.085
54.5763 16.5459 1.08636
54.5866 16.5455 1.085
54.5962 16.545 1.081
54.5962 16.545 0.871
54.556 16.5419 1.081
54.576 16.541 1.08636
54.5657 16.5414 1.085
54.596 16.54 1.081
54.5864 16.5405 1.085
54.5864 16.5405 0.867004
54.596 16.54 0.871
54.5657 16.5414 0.867004
54.576 16.541 0.865641
54.556 16.5419 0.871
54.5846 16.5005 0.867004
54.5742 16.501 0.865641
54.5639 16.5015 0.867004
54.5542 16.5019 0.871
54.5542 16.5019 1.081
54.5639 16.5015 1.085
54.5742 16.501 1.08636
54.5846 16.5005 1.085
54.5942 16.5001 1.081
54.5942 16.5001 0.871
54.554 16.4969 1.081
54.574 16.496 1.08636
54.5637 16.4965 1.085
54.594 16.4951 1.081
54.5843 16.4955 1.085
54.5843 16.4955 0.867004
54.594 16.4951 0.871
54.5637 16.4965 0.867004
54.574 16.496 0.865641
54.554 16.4969 0.871
54.5742 16.546 1.00878
54.5822 16.5457 1.008
54.5783 16.5459 1.00878
54.5783 16.5459 0.99322
54.5822 16.5457 0.994
54.5703 16.5462 0.994
54.5742 16.546 0.99322
54.5703 16.5462 1.008
54.5835 16.5733 1.008
54.5795 16.5718 1.00878
54.5641 16.5886 1.00878
54.5623 16.5846 1.00878
54.5753 16.5703 1.00878
54.5713 16.5689 1.008
54.5713 16.5689 0.994
54.5753 16.5703 0.99322
54.5795 16.5718 0.99322
54.5623 16.5846 0.99322
54.5641 16.5886 0.99322
54.5835 16.5733 0.994
54.566 16.5925 1.008
54.5605 16.5807 1.008
54.5605 16.5807 0.994
54.566 16.5925 0.994
54.4782 16.5925 1.00878
54.4784 16.5964 1.008
54.4784 16.5964 0.994
54.4782 16.5925 0.99322
54.4781 16.5884 0.99322
54.4779 16.5845 0.994
54.4779 16.5845 1.008
54.4781 16.5884 1.00878
54.5261 16.5943 1.008
54.5203 16.5885 1.00888
54.5192 16.5826 1.008
54.5192 16.5826 0.994
54.5203 16.5885 0.993121
54.5261 16.5943 0.994
54.58 16.4957 1.008
54.58 16.4957 0.994
54.576 16.4959 0.99322
54.572 16.4961 0.99322
54.568 16.4963 0.994
54.568 16.4963 1.008
54.572 16.4961 1.00878
54.576 16.4959 1.00878
54.567 16.4738 0.994
54.567 16.4738 1.008
54.5709 16.472 1.00878
54.5565 16.4588 1.00878
54.558 16.4547 1.00878
54.5749 16.4701 1.00878
54.5788 16.4683 1.008
54.5788 16.4683 0.994
54.5749 16.4701 0.99322
54.5709 16.472 0.99322
54.558 16.4547 0.99322
54.5565 16.4588 0.99322
54.555 16.4629 0.994
54.555 16.4629 1.008
54.5594 16.4506 1.008
54.5594 16.4506 0.994
54.4723 16.4626 1.00878
54.4725 16.4666 1.008
54.4725 16.4666 0.994
54.4723 16.4626 0.99322
54.4722 16.4586 0.99322
54.472 16.4546 0.994
54.472 16.4546 1.008
54.4722 16.4586 1.00878
54.5138 16.4647 1.008
54.5138 16.4647 0.994
54.5143 16.4587 1.00888
54.5195 16.4524 1.008
54.5195 16.4524 0.994
54.5143 16.4587 0.993121
50.3333 16.7205 0
50.3291 16.5606 0
50.3333 16.7205 3.35
54.7083 16.3628 0
54.7083 16.3628 3.35
54.6369 16.5262 0.001
54.6369 16.5262 0.0609275
54.7166 16.5226 0
53.7049 16.5683 0.773255
53.7049 16.5683 0.001
54.6297 16.3664 0.001
53.6977 16.4084 0.001
54.6297 16.3664 2.0425
53.6977 16.4084 2.0425
54.7166 16.5226 3.35
53.7049 16.5683 2.0425
54.6369 16.5262 2.0425
55.1421 24.6398 1.21631
55.3945 29.4567 -0.2
54.7083 16.3628 3.65
54.9888 21.716 2.076
55.0496 22.8749 1.73524
55.0793 23.4415 1.56867
54.7083 16.3628 -0.2
55.3945 29.4567 3.65
54.8681 16.3556 -0.2
54.8681 16.3556 3.65
55.1465 21.6682 2.076
55.1465 21.6682 0.001
55.2093 22.8666 0.001
55.2093 22.8666 2.076
55.239 23.4331 0.001
55.3018 24.6314 0.001
55.3018 24.6314 2.076
55.5544 29.4514 -0.2
55.239 23.4331 2.076
55.5544 29.4514 3.65
54.9596 18.1004 0.001
54.9596 18.1004 0.312949
55.0224 19.2987 0.001
55.1465 21.6682 1.36184
55.0224 19.2987 0.665249
55.239 23.4331 1.88069
55.2093 22.8666 1.71414
55.2738 24.0974 2.076
54.9596 18.1004 2.076
55.0224 19.2987 2.076
51.5462 29.3538 2.225
50.7216 29.3811 2.225
50.7216 29.3811 2.275
51.5462 29.3538 2.275
50.7206 29.3511 2.225
50.7206 29.3511 2.275
51.5452 29.3238 2.225
51.5452 29.3238 2.275
51.5452 29.3238 1
51.5458 29.3438 1
51.5458 29.3438 2.225
50.7213 29.3711 1
50.7213 29.3711 2.225
50.7206 29.3511 1
51.5458 29.3438 2.275
51.5458 29.3438 2.75
51.5452 29.3238 2.75
50.7213 29.3711 2.275
50.7213 29.3711 2.75
50.7206 29.3511 2.75
51.5951 29.3222 2.8
51.5951 29.3222 0.95
51.5961 29.3522 0.95
51.5961 29.3522 2.8
50.6707 29.3527 0.95
50.6716 29.3827 0.95
50.6707 29.3527 2.8
50.6716 29.3827 2.8
51.5462 29.3538 2.75
51.5462 29.3538 1
50.7216 29.3811 2.75
50.7216 29.3811 1
50.3539 18.6217 2.225
50.3319 17.797 2.225
50.3319 17.797 2.275
50.3539 18.6217 2.275
50.3619 17.7962 2.225
50.3619 17.7962 2.275
50.3839 18.6209 2.225
50.3839 18.6209 2.275
50.3839 18.6209 1
50.3639 18.6215 1
50.3639 18.6215 2.225
50.3419 17.7967 1
50.3419 17.7967 2.225
50.3619 17.7962 1
50.3639 18.6215 2.275
50.3639 18.6215 2.75
50.3839 18.6209 2.75
50.3419 17.7967 2.275
50.3419 17.7967 2.75
50.3619 17.7962 2.75
50.3852 18.6709 2.8
50.3852 18.6709 0.95
50.3552 18.6717 0.95
50.3552 18.6717 2.8
50.3606 17.7462 0.95
50.3306 17.747 0.95
50.3606 17.7462 2.8
50.3306 17.747 2.8
50.3539 18.6217 2.75
50.3539 18.6217 1
50.3319 17.797 2.75
50.3319 17.797 1
50.379 19.5664 2.225
50.3571 18.7417 2.225
50.3571 18.7417 2.275
50.379 19.5664 2.275
50.387 18.7409 2.225
50.387 18.7409 2.275
50.409 19.5656 2.225
50.409 19.5656 2.275
50.409 19.5656 1
50.389 19.5661 1
50.389 19.5661 2.225
50.3671 18.7414 1
50.3671 18.7414 2.225
50.387 18.7409 1
50.389 19.5661 2.275
50.389 19.5661 2.75
50.409 19.5656 2.75
50.3671 18.7414 2.275
50.3671 18.7414 2.75
50.387 18.7409 2.75
50.4103 19.6156 2.8
50.4103 19.6156 0.95
50.3803 19.6164 0.95
50.3803 19.6164 2.8
50.3857 18.6909 0.95
50.3557 18.6917 0.95
50.3857 18.6909 2.8
50.3557 18.6917 2.8
50.379 19.5664 2.75
50.379 19.5664 1
50.3571 18.7417 2.75
50.3571 18.7417 1
50.4335 21.6157 2.225
50.4116 20.791 2.225
50.4116 20.791 2.275
50.4335 21.6157 2.275
50.4415 20.7902 2.225
50.4415 20.7902 2.275
50.4635 21.6149 2.225
50.4635 21.6149 2.275
50.4635 21.6149 1
50.4435 21.6154 1
50.4435 21.6154 2.225
50.4216 20.7907 1
50.4216 20.7907 2.225
50.4415 20.7902 1
50.4435 21.6154 2.275
50.4435 21.6154 2.75
50.4635 21.6149 2.75
50.4216 20.7907 2.275
50.4216 20.7907 2.75
50.4415 20.7902 2.75
50.4648 21.6648 2.8
50.4648 21.6648 0.95
50.4348 21.6656 0.95
50.4348 21.6656 2.8
50.4402 20.7402 0.95
50.4102 20.741 0.95
50.4402 20.7402 2.8
50.4102 20.741 2.8
50.4335 21.6157 2.75
50.4335 21.6157 1
50.4116 20.791 2.75
50.4116 20.791 1
50.4084 20.671 2.225
50.3864 19.8463 2.225
50.3864 19.8463 2.275
50.4084 20.671 2.275
50.4164 19.8455 2.225
50.4164 19.8455 2.275
50.4384 20.6702 2.225
50.4384 20.6702 2.275
50.4384 20.6702 1
50.4184 20.6707 1
50.4184 20.6707 2.225
50.3964 19.846 1
50.3964 19.846 2.225
50.4164 19.8455 1
50.4184 20.6707 2.275
50.4184 20.6707 2.75
50.4384 20.6702 2.75
50.3964 19.846 2.275
50.3964 19.846 2.75
50.4164 19.8455 2.75
50.4397 20.7202 2.8
50.4397 20.7202 0.95
50.4097 20.721 0.95
50.4097 20.721 2.8
50.4151 19.7955 0.95
50.3851 19.7963 0.95
50.4151 19.7955 2.8
50.3851 19.7963 2.8
50.4084 20.671 2.75
50.4084 20.671 1
50.3864 19.8463 2.75
50.3864 19.8463 1
50.5833 27.2487 2.225
50.5614 26.424 2.225
50.5614 26.424 2.275
50.5833 27.2487 2.275
50.5914 26.4232 2.225
50.5914 26.4232 2.275
50.6133 27.2479 2.225
50.6133 27.2479 2.275
50.6133 27.2479 1
50.5933 27.2484 1
50.5933 27.2484 2.225
50.5714 26.4237 1
50.5714 26.4237 2.225
50.5914 26.4232 1
50.5933 27.2484 2.275
50.5933 27.2484 2.75
50.6133 27.2479 2.75
50.5714 26.4237 2.275
50.5714 26.4237 2.75
50.5914 26.4232 2.75
50.6146 27.2979 2.8
50.6146 27.2979 0.95
50.5846 27.2987 0.95
50.5846 27.2987 2.8
50.59 26.3732 0.95
50.56 26.374 0.95
50.59 26.3732 2.8
50.56 26.374 2.8
50.5833 27.2487 2.75
50.5833 27.2487 1
50.5614 26.424 2.75
50.5614 26.424 1
50.5882 26.3032 1
50.5682 26.3037 1
50.5682 26.3037 2.275
50.5882 26.3032 2.275
50.5216 24.5544 1
50.5216 24.5544 2.275
50.5416 24.5538 1
50.5416 24.5538 2.275
50.5882 26.3032 2.325
50.5682 26.3037 2.325
50.5682 26.3037 2.75
50.5882 26.3032 2.75
50.5216 24.5544 2.325
50.5216 24.5544 2.75
50.5416 24.5538 2.325
50.5416 24.5538 2.75
50.5582 26.304 2.275
50.5117 24.5546 2.275
50.5117 24.5546 2.325
50.5582 26.304 2.325
50.5895 26.3532 2.8
50.5895 26.3532 0.95
50.5595 26.354 0.95
50.5595 26.354 2.8
50.5403 24.5038 0.95
50.5103 24.5046 0.95
50.5403 24.5038 2.8
50.5103 24.5046 2.8
50.5582 26.304 2.75
50.5582 26.304 1
50.5117 24.5546 2.75
50.5117 24.5546 1
50.5085 24.4347 2.225
50.4865 23.61 2.225
50.4865 23.61 2.275
50.5085 24.4347 2.275
50.5165 23.6092 2.225
50.5165 23.6092 2.275
50.5385 24.4339 2.225
50.5385 24.4339 2.275
50.5385 24.4339 1
50.5185 24.4344 1
50.5185 24.4344 2.225
50.4965 23.6097 1
50.4965 23.6097 2.225
50.5165 23.6092 1
50.5185 24.4344 2.275
50.5185 24.4344 2.75
50.5385 24.4339 2.75
50.4965 23.6097 2.275
50.4965 23.6097 2.75
50.5165 23.6092 2.75
50.5398 24.4839 2.8
50.5398 24.4839 0.95
50.5098 24.4846 0.95
50.5098 24.4846 2.8
50.5152 23.5592 0.95
50.4852 23.56 0.95
50.5152 23.5592 2.8
50.4852 23.56 2.8
50.5085 24.4347 2.75
50.5085 24.4347 1
50.4865 23.61 2.75
50.4865 23.61 1
55.2841 29.2302 2.25
53.5351 29.2881 2.25
53.5351 29.2881 2.3
55.2841 29.2302 2.3
53.5341 29.2581 2.25
53.5341 29.2581 2.3
55.2831 29.2003 2.25
55.2831 29.2003 2.3
55.2831 29.2003 1
55.2841 29.2302 1
53.5351 29.2881 1
53.5341 29.2581 1
55.2841 29.2302 2.75
55.2831 29.2003 2.75
53.5351 29.2881 2.75
53.5341 29.2581 2.75
55.3331 29.1986 2.8
55.3331 29.1986 0.95
55.3341 29.2286 0.95
55.3341 29.2286 2.8
53.4841 29.2597 0.95
53.4851 29.2897 0.95
53.4841 29.2597 2.8
53.4851 29.2897 2.8
53.4151 29.292 2.25
51.6661 29.3498 2.25
51.6661 29.3498 2.3
53.4151 29.292 2.3
51.6651 29.3199 2.25
51.6651 29.3199 2.3
53.4142 29.262 2.25
53.4142 29.262 2.3
53.4142 29.262 1
53.4151 29.292 1
51.6661 29.3498 1
51.6651 29.3199 1
53.4151 29.292 2.75
53.4142 29.262 2.75
51.6661 29.3498 2.75
51.6651 29.3199 2.75
53.4641 29.2604 2.8
53.4641 29.2604 0.95
53.4651 29.2904 0.95
53.4651 29.2904 2.8
51.6151 29.3215 0.95
51.6161 29.3515 0.95
51.6151 29.3215 2.8
51.6161 29.3515 2.8
50.6762 29.6127 -0.2
50.6693 29.3528 -0.2
50.6762 29.6127 3.65
55.3809 29.197 -0.2
54.3407 29.2314 2.8
53.4641 29.2604 2.08376
53.4841 29.2597 2.10009
52.0766 29.3063 0.95
53.4927 29.5196 0.95
53.9851 29.5033 0.95
51.7179 29.5783 2.8
51.6237 29.5814 2.8
53.4727 29.5202 0.95
53.4727 29.5202 1.36811
53.4927 29.5196 1.3518
51.6237 29.5814 0.95
51.6037 29.582 0.95
50.6792 29.6126 0.95
51.6037 29.582 2.8
50.6792 29.6126 2.8
53.4727 29.5202 2.8
53.4927 29.5196 2.8
55.3417 29.4585 2.8
55.3417 29.4585 0.95
50.4112 19.6506 0
54.8682 19.4153 0
54.8682 19.4153 3.35
50.4112 19.6506 3.35
54.8735 19.5152 0
54.8735 19.5152 3.35
50.4139 19.7506 0
50.4139 19.7506 3.35
50.5096 23.3503 0
55.0619 23.1099 0
55.0619 23.1099 3.35
50.5096 23.3503 3.35
55.0671 23.2098 0
55.0671 23.2098 3.35
50.5123 23.4502 0
50.5123 23.4502 3.35
50.4327 20.4593 0.95
50.3291 16.5606 -0.2
50.5995 26.7311 2.8
50.59 26.3732 2.69444
50.5895 26.3532 2.68854
50.5403 24.5038 2.14304
50.5398 24.4839 2.13714
50.5152 23.5592 1.86439
50.4648 21.6648 1.30562
50.4402 20.7402 1.03286
50.4397 20.7202 1.02697
50.4163 29.6213 -0.2
50.4163 29.6213 3.65
50.3547 27.3048 2.8
50.3547 27.3048 0.95
50.3301 26.3801 0.95
50.3301 26.3801 2.8
50.3296 26.3601 0.95
50.2804 24.5108 0.95
50.2804 24.5108 2.8
50.2049 21.6718 0.95
50.1803 20.7471 0.95
50.1803 20.7471 2.8
50.1798 20.7271 0.95
50.1552 19.8024 0.95
50.0693 16.5723 -0.2
50.1007 17.7531 2.8
50.1253 18.6778 2.8
50.1253 18.6778 0.95
50.1007 17.7531 0.95
50.1258 18.6978 2.8
50.1504 19.6225 2.8
50.1504 19.6225 0.95
50.1258 18.6978 0.95
50.1552 19.8024 2.8
50.1798 20.7271 2.8
50.2049 21.6718 2.8
50.3296 26.3601 2.8
50.0693 16.5723 3.65
50.3127 25.7235 0.95
50.2799 24.4908 1.31372
50.2804 24.5108 1.30782
50.2553 23.5661 0.95
50.2049 21.6718 2.14544
50.2553 23.5661 1.58654
50.1798 20.7271 2.42416
50.1803 20.7471 2.41826
50.1504 19.6225 2.75007
50.1552 19.8024 2.69698
50.1459 19.4532 2.8
50.2799 24.4908 0.95
50.2799 24.4908 2.8
50.2553 23.5661 2.8
55.331 29.1987 0
54.7082 16.3621 0
54.7082 16.3621 -0.2
55.331 29.1987 -0.2
50.6693 29.3528 0
